21.53815460 -3.86270499 3.21637201 0.47308889 0.08415225 -0.87698649 1
21.53956413 -3.86270499 3.21718359 0.52936860 0.13942631 -0.83685673 1
21.54243088 -3.86270499 3.21876097 0.53280253 0.19270983 -0.82400509 1
21.54368210 -3.86270499 3.21972895 0.48495780 0.21161084 -0.84854981 1
21.54994202 -3.86270499 3.22238588 0.40990936 0.23251197 -0.88199348 1
21.55118942 -3.86270499 3.22335935 0.41044419 0.26652512 -0.87206647 1
21.55259705 -3.86270499 3.22418070 0.38461182 0.28636846 -0.87753453 1
21.55932045 -3.86270499 3.22641587 0.16324518 0.47730103 -0.86344354 1
21.56104279 -3.86270499 3.22693825 0.13251278 0.51785462 -0.84514316 1
21.56596184 -3.86270499 3.22657657 -0.00415846 0.66603904 -0.74590530 1
21.57110214 -3.86270499 3.22601676 -0.02995104 0.65445321 -0.75550905 1
21.57859993 -3.86270499 3.22540283 -0.15187695 0.63508315 -0.75736569 1
21.58171082 -3.86270499 3.22462392 -0.15239826 0.63840827 -0.75445984 1
21.53466606 -3.86475420 3.21541023 0.44548997 0.10483628 -0.88912768 1
21.54233170 -3.86475420 3.21885872 0.48195062 0.29521025 -0.82496940 1
21.54368210 -3.86475420 3.21972895 0.45127644 0.28628987 -0.84521458 1
21.54676056 -3.86475420 3.22110367 0.37954217 0.28356405 -0.88064702 1
21.54837608 -3.86475420 3.22171998 0.37111774 0.33513649 -0.86599952 1
21.55150604 -3.86475420 3.22305346 0.33017992 0.35960513 -0.87273442 1
21.55666733 -3.86475420 3.22461176 0.19762677 0.48436021 -0.85225516 1
21.55886650 -3.86475420 3.22467422 0.07950774 0.60509812 -0.79217093 1
21.56389236 -3.86475420 3.22420239 -0.01921005 0.70115771 -0.71274739 1
21.57038116 -3.86475420 3.22452569 -0.00046054 0.64890305 -0.76087096 1
21.57552338 -3.86475420 3.22397327 -0.13131856 0.64418101 -0.75351594 1
21.58172989 -3.86475420 3.22242403 -0.18012408 0.65197532 -0.73653479 1
21.53701019 -3.86680317 3.21530247 0.40005016 0.27397332 -0.87458475 1
21.54155159 -3.86680317 3.21743035 0.43233768 0.31661362 -0.84429849 1
21.54301071 -3.86680317 3.21819544 0.43169466 0.35286918 -0.83013436 1
21.54890060 -3.86680317 3.22121167 0.32517674 0.42044013 -0.84704792 1
21.55067444 -3.86680317 3.22167635 0.29050282 0.47193419 -0.83239788 1
21.55610275 -3.86680317 3.22297525 0.08101695 0.63839660 -0.76543192 1
21.55856895 -3.86680317 3.22277975 0.01491737 0.68541160 -0.72800303 1
21.56144524 -3.86680317 3.22219133 -0.00473942 0.73815399 -0.67461561 1
21.56359482 -3.86680317 3.22230577 0.02580678 0.72731419 -0.68581928 1
21.56563187 -3.86680317 3.22253323 0.06689013 0.68722169 -0.72336164 1
21.58138275 -3.86680317 3.22056818 -0.19027712 0.61059943 -0.76874115 1
21.58348274 -3.86680317 3.22075510 -0.20446338 0.60445425 -0.76995441 1
21.53920555 -3.86885238 3.21534395 0.36491374 0.43950099 -0.82077819 1
21.54098129 -3.86885238 3.21579981 0.35318659 0.50863970 -0.78520372 1
21.54259682 -3.86885238 3.21641064 0.36424370 0.54554827 -0.75478713 1
21.54530716 -3.86885238 3.21814585 0.32454934 0.60352074 -0.72830656 1
21.55047989 -3.86885238 3.21968007 0.19696069 0.69020119 -0.69629649 1
21.55664444 -3.86885238 3.22026873 0.00086169 0.79219345 -0.61026944 1
21.55926132 -3.86885238 3.21992683 0.01975926 0.79020474 -0.61252432 1
21.56198883 -3.86885238 3.21948338 0.09249677 0.75552298 -0.64855946 1
21.56721687 -3.86885238 3.22100925 0.10357051 0.67955793 -0.72627417 1
21.56915283 -3.86885238 3.22133636 0.07391706 0.67238967 -0.73649739 1
21.57692146 -3.86885238 3.22045517 -0.14323092 0.62502487 -0.76735182 1
21.58018303 -3.86885238 3.21952677 -0.14929466 0.58760568 -0.79525510 1
21.54067230 -3.87090158 3.21391058 0.30499761 0.60403176 -0.73628941 1
21.54390717 -3.87090158 3.21513271 0.26005613 0.65685258 -0.70775384 1
21.54568291 -3.87090158 3.21559238 0.25659784 0.66354883 -0.70275209 1
21.54918289 -3.87090158 3.21656466 0.14304447 0.73630644 -0.66135550 1
21.55635643 -3.87090158 3.21617317 -0.00196333 0.79801500 -0.60263439 1
21.55886650 -3.87090158 3.21593356 0.06271077 0.79613864 -0.60185599 1
21.56032753 -3.87090158 3.21671104 0.09604722 0.77445252 -0.62529851 1
21.56728554 -3.87090158 3.21875715 0.12306622 0.68222694 -0.72070876 1
21.56959152 -3.87090158 3.21873045 0.06064954 0.68885388 -0.72235861 1
21.57441902 -3.87090158 3.21847606 -0.06010853 0.67646750 -0.73401545 1
21.58025360 -3.87090158 3.21727037 -0.07542394 0.55054499 -0.83139127 1
21.58736229 -3.87090158 3.21486878 -0.19342566 0.34773472 -0.91742415 1
21.54542542 -3.87295079 3.21365213 0.20609475 0.71670316 -0.66622934 1
21.54710007 -3.87295079 3.21421027 0.12312679 0.72664392 -0.67589083 1
21.55107498 -3.87295079 3.21472454 0.04059918 0.72679269 -0.68565595 1
21.55326843 -3.87295079 3.21478558 -0.01758392 0.72305091 -0.69057092 1
21.55813789 -3.87295079 3.21444750 0.06026089 0.74246316 -0.66717096 1
21.56504822 -3.87295079 3.21653414 0.15390966 0.74709577 -0.64665271 1
21.56676865 -3.87295079 3.21706629 0.11425785 0.74090874 -0.66181521 1
21.56892204 -3.87295079 3.21718407 0.07189733 0.74351134 -0.66484710 1
21.57091141 -3.87295079 3.21746302 0.03718642 0.72393522 -0.68886498 1
21.57772827 -3.87295079 3.21749496 -0.06624028 0.61303279 -0.78727570 1
21.58861732 -3.87295079 3.21586633 -0.19672373 0.35761387 -0.91291407 1
21.59247208 -3.87295079 3.21439075 -0.20787116 0.35028545 -0.91328510 1
21.54484940 -3.87500000 3.21201921 0.17225539 0.70646112 -0.68646978 1
21.54982185 -3.87500000 3.21155834 0.04657987 0.68623440 -0.72588750 1
21.55170631 -3.87500000 3.21191716 0.03383008 0.69141521 -0.72166511 1
21.55395889 -3.87500000 3.21192217 0.00598141 0.67710077 -0.73586600 1
21.56600571 -3.87500000 3.21342015 0.14013805 0.74325473 -0.65416644 1
21.56830978 -3.87500000 3.21339035 0.13963252 0.74687005 -0.65014451 1
21.56972313 -3.87500000 3.21422291 0.12759921 0.74819528 -0.65109313 1
21.57150269 -3.87500000 3.21470261 0.09720947 0.72689373 -0.67983514 1
21.57365799 -3.87500000 3.21482420 0.09545055 0.69435690 -0.71327252 1
21.57596588 -3.87500000 3.21480179 0.06052958 0.65748811 -0.75102967 1
21.58441544 -3.87500000 3.21548772 -0.10554685 0.42825900 -0.89747094 1
21.59389877 -3.87500000 3.21303320 -0.14131507 0.38532409 -0.91189660 1
21.54883194 -3.87704921 3.21032786 0.04256558 0.66907035 -0.74197913 1
21.55103302 -3.87704921 3.21037865 0.01914652 0.67470834 -0.73783607 1
21.55574417 -3.87704921 3.21018648 -0.01154103 0.63045239 -0.77614212 1
21.56192207 -3.87704921 3.21078110 0.13226021 0.60568601 -0.78463475 1
21.56402016 -3.87704921 3.21094823 0.13647893 0.61094756 -0.77981830 1
21.56763840 -3.87704921 3.21184397 0.12884981 0.64401487 -0.75408393 1
21.57523727 -3.87704921 3.21330714 0.12835330 0.65637751 -0.74343392 1
21.57733727 -3.87704921 3.21348667 0.10326382 0.64663367 -0.75577873 1
21.58159447 -3.87704921 3.21379638 0.06326227 0.59102489 -0.80416880 1
21.58363724 -3.87704921 3.21403694 0.05146543 0.60050351 -0.79796419 1
21.58542061 -3.87704921 3.21452808 -0.02277186 0.57000924 -0.82132266 1
21.55171204 -3.87909842 3.20971560 0.01485915 0.66485731 -0.74682258 1
21.55417252 -3.87909842 3.20951772 -0.00695093 0.60161473 -0.79875616 1
21.56260490 -3.87909842 3.21012020 0.13493189 0.62057710 -0.77244899 1
21.56470108 -3.87909842 3.21028781 0.11546005 0.64454702 -0.75579635 1
21.56706619 -3.87909842 3.21020007 0.09364795 0.66410313 -0.74175272 1
21.57121277 -3.87909842 3.21059370 0.15822578 0.68558267 -0.71059201 1
21.57477570 -3.87909842 3.21155596 0.14063668 0.68460892 -0.71521462 1
21.57839775 -3.87909842 3.21246910 0.07117675 0.67252957 -0.73663957 1
21.58259964 -3.87909842 3.21283531 0.06231364 0.68465383 -0.72619979 1
21.58906364 -3.87909842 3.21324730 -0.09203751 0.45230205 -0.88710313 1
21.59211540 -3.87909842 3.21253586 -0.17567744 0.52137125 -0.83505057 1
21.55501366 -3.88114762 3.20649815 0.02181925 0.62587207 -0.77962047 1
21.55883408 -3.88114762 3.20718217 0.05619214 0.74616272 -0.66338801 1
21.56717491 -3.88114762 3.20789599 0.05537829 0.82833192 -0.55749393 1
21.56943130 -3.88114762 3.20791411 0.08884849 0.82730491 -0.55468237 1
21.57127190 -3.88114762 3.20833707 0.11721135 0.79969237 -0.58885789 1
21.57483864 -3.88114762 3.20929861 0.10969776 0.79511478 -0.59645527 1
21.57924843 -3.88114762 3.20945597 0.09116714 0.74864740 -0.65667010 1
21.58681107 -3.88114762 3.21100426 0.11146503 0.67437975 -0.72992294 1
21.58859634 -3.88114762 3.21149707 0.00705397 0.66771026 -0.74438784 1
21.59181404 -3.88114762 3.21062541 -0.12228577 0.62490074 -0.77106760 1
21.56229782 -3.88319683 3.20160818 0.09657551 0.86478058 -0.49277553 1
21.56434822 -3.88319683 3.20182180 0.13753457 0.86410704 -0.48415211 1
21.57290459 -3.88319683 3.20455790 0.27258887 0.69854731 -0.66160937 1
21.57669067 -3.88319683 3.20531249 0.22718919 0.62998796 -0.74263062 1
21.57820892 -3.88319683 3.20605302 0.19640496 0.59240291 -0.78133468 1
21.57983589 -3.88319683 3.20669079 0.21016816 0.54275864 -0.81316813 1
21.58509064 -3.88319683 3.20825195 0.22407568 0.57675702 -0.78558350 1
21.58735275 -3.88319683 3.20828676 0.09197348 0.61333753 -0.78444755 1
21.59240913 -3.88319683 3.20785856 0.03904184 0.58515536 -0.80998082 1
21.56781197 -3.88524580 3.20066500 0.32718428 0.62212022 -0.71127834 1
21.57085800 -3.88524580 3.20212603 0.41706892 0.57372832 -0.70490378 1
21.57211876 -3.88524580 3.20311213 0.42752644 0.51089591 -0.74579254 1
21.57358742 -3.88524580 3.20389795 0.41223259 0.45219291 -0.79093986 1
21.57826805 -3.88524580 3.20599747 0.27089362 0.47701386 -0.83610671 1
21.57994461 -3.88524580 3.20658684 0.21369823 0.50860871 -0.83405650 1
21.58225632 -3.88524580 3.20656776 0.19364161 0.49619344 -0.84634213 1
21.58859634 -3.88524580 3.21149707 0.08957195 0.60845532 -0.78851696 1
21.56806946 -3.88729501 3.19820404 0.39671626 0.60979244 -0.68612636 1
21.57059479 -3.88729501 3.20017338 0.45598110 0.56869532 -0.68459248 1
21.57300949 -3.88729501 3.20225000 0.47617028 0.51846040 -0.71025396 1
21.57568932 -3.88729501 3.20407343 0.36258361 0.44657500 -0.81798771 1
21.57737541 -3.88729501 3.20465326 0.30246426 0.46637651 -0.83126910 1
21.58137131 -3.88729501 3.20521450 0.18158891 0.50850954 -0.84169086 1
21.58952141 -3.88729501 3.20621252 0.09589313 0.45665928 -0.88445848 1
21.56985664 -3.88934422 3.19867969 0.45002949 0.57664850 -0.68187240 1
21.57264709 -3.88934422 3.20039368 0.47980950 0.56422931 -0.67188401 1
21.57400894 -3.88934422 3.20128369 0.41658660 0.57867163 -0.70113818 1
21.57537842 -3.88934422 3.20216751 0.36401532 0.56604330 -0.73965386 1
21.58073807 -3.88934422 3.20361853 0.19658225 0.56124398 -0.80396556 1
21.58421135 -3.88934422 3.20469046 0.19768279 0.54023034 -0.81796864 1
21.59020805 -3.88934422 3.20555592 0.15317043 0.47661654 -0.86566477 1
21.57380295 -3.89139342 3.19927359 0.39494229 0.71768138 -0.57354513 1
21.57522392 -3.89139342 3.20010853 0.33514973 0.73142864 -0.59387441 1
21.57669449 -3.89139342 3.20089602 0.27577588 0.73747983 -0.61649912 1
21.58353424 -3.89139342 3.20313501 0.27228985 0.59836536 -0.75353642 1
21.58726883 -3.89139342 3.20396209 0.21615238 0.54106052 -0.81273099 1
21.58910561 -3.89139342 3.20440578 0.18962674 0.49708712 -0.84672670 1
21.59242249 -3.89139342 3.20564294 0.13086638 0.42577489 -0.89531544 1
21.57795525 -3.89344263 3.19746637 0.24059538 0.80935006 -0.53578573 1
21.57916832 -3.89344263 3.19850588 0.22165797 0.81398396 -0.53693376 1
21.58532143 -3.89344263 3.20141625 0.31577901 0.70057475 -0.63990517 1
21.58711815 -3.89344263 3.20189929 0.24925544 0.67901237 -0.69051715 1
21.58900833 -3.89344263 3.20229387 0.23578854 0.67396017 -0.70012960 1
21.57990265 -3.89549184 3.19558239 0.27854488 0.82686510 -0.48857635 1
21.58495712 -3.89549184 3.19734573 0.30829927 0.79719027 -0.51907537 1
21.58591080 -3.89549184 3.19863915 0.31940618 0.78331903 -0.53328322 1
21.58437538 -3.89754105 3.19347501 0.30759229 0.80329395 -0.51000569 1
21.58506584 -3.89754105 3.19502497 0.30759229 0.80329395 -0.51000569 1
21.58458900 -3.89754105 3.19769955 0.30829927 0.79719027 -0.51907537 1
21.59794426 -3.77254105 3.23757553 -0.87540939 0.47937380 -0.06212215 1
21.59592819 -3.77254105 3.24162650 -0.89498941 0.43402005 -0.10305608 1
21.59739685 -3.77459025 3.23592138 -0.89028811 0.44946156 -0.07328973 1
21.59715652 -3.77459025 3.24047923 -0.90340197 0.42368381 -0.06600694 1
21.59647560 -3.77459025 3.24543619 -0.91023964 0.39083098 -0.13680260 1
21.59631538 -3.77663946 3.22824216 -0.94048175 0.33670099 -0.04611413 1
21.59581947 -3.77663946 3.23305798 -0.91435826 0.39718551 -0.07869332 1
21.59578133 -3.77663946 3.23526621 -0.89118526 0.44700763 -0.07728523 1
21.59552765 -3.77663946 3.23767161 0.89035617 -0.45365849 0.03820816 1
21.59477997 -3.77868843 3.22533083 0.96271864 -0.26982448 0.01917225 1
21.59530258 -3.77868843 3.22919512 0.95662277 -0.29072189 0.01880571 1
21.59510803 -3.77868843 3.23155499 -0.94189657 0.32849346 -0.07016334 1
21.59501839 -3.77868843 3.23381114 -0.92967232 0.35690693 -0.09125145 1
21.59487724 -3.77868843 3.23611450 -0.92735505 0.36543055 -0.08045567 1
21.59459114 -3.77868843 3.24287605 -0.91001095 0.39579716 -0.12338828 1
21.59257507 -3.77868843 3.25122547 -0.92635662 0.28893788 -0.24161605 1
21.59516907 -3.78073764 3.22714281 0.97428898 -0.22528788 -0.00251924 1
21.59514236 -3.78073764 3.22934580 0.97874633 -0.20399337 0.02103177 1
21.59505653 -3.78073764 3.23160267 -0.97332734 0.21096989 -0.09014203 1
21.59425163 -3.78073764 3.23886824 -0.95496293 0.28945053 -0.06530075 1
21.59420586 -3.78073764 3.24107409 -0.93979844 0.33517841 -0.06659070 1
21.59310341 -3.78073764 3.24857998 -0.94329887 0.25200291 -0.21605965 1
21.59262657 -3.78073764 3.25117779 -0.94634679 0.21813860 -0.23841836 1
21.59450912 -3.78278685 3.22558451 0.92739832 -0.37406744 -0.00242811 1
21.59466171 -3.78278685 3.22979832 0.96478848 -0.26153554 0.02797054 1
21.59452438 -3.78278685 3.23210287 -0.97930292 0.17750917 -0.09724343 1
21.59375381 -3.78278685 3.23716807 -0.97860818 0.17576238 -0.10692806 1
21.59288216 -3.78278685 3.24447393 -0.96122086 0.25325834 -0.10915437 1
21.59272385 -3.78278685 3.24677992 -0.95542295 0.25305752 -0.15208182 1
21.59235764 -3.78278685 3.24927568 -0.95840130 0.20600642 -0.19755582 1
21.59347153 -3.78483605 3.22438359 0.88016352 -0.47031580 -0.06415003 1
21.59397888 -3.78483605 3.22608566 0.87431024 -0.47155771 -0.11495622 1
21.59431839 -3.78483605 3.22794557 0.89862585 -0.41529364 -0.14143118 1
21.59393501 -3.78483605 3.23265791 0.99092841 -0.12878501 0.03840980 1
21.59342194 -3.78483605 3.23531055 -0.98842620 0.09685230 -0.11676166 1
21.59207916 -3.78483605 3.24522495 -0.98062167 0.13317133 -0.14368900 1
21.59170723 -3.78483605 3.24772835 -0.97358571 0.14975137 -0.17235252 1
21.59043121 -3.78483605 3.25322199 -0.96161676 0.06208724 -0.26727959 1
21.59016228 -3.78483605 3.25561953 -0.95934659 0.05911053 -0.27597114 1
21.59399796 -3.78688526 3.22824740 0.91739010 -0.30606031 -0.25440614 1
21.59230042 -3.78688526 3.24717569 -0.98256023 -0.05632583 -0.17720832 1
21.59308243 -3.78893447 3.24212623 -0.95811115 -0.23699826 -0.16079445 1
21.58967972 -3.79098368 3.25821352 -0.96493278 0.05671010 -0.25629805 1
21.52771378 -3.79303288 3.26534796 0.51103305 0.06131140 -0.85737164 1
21.54108238 -3.79508185 3.27601624 0.60008804 0.10693988 -0.79275356 1
21.53944588 -3.79713106 3.27332306 0.60196011 0.24666012 -0.75947536 1
21.52681732 -3.79918027 3.26620507 0.33562414 -0.22190853 -0.91548514 1
21.58410454 -3.79918027 3.26339269 -0.84981451 0.36088816 -0.38415497 1
21.52936363 -3.80122948 3.26802945 0.38541741 -0.00239144 -0.92273924 1
21.57711029 -3.80122948 3.27414322 -0.58602495 0.37617832 -0.71768004 1
21.53138161 -3.80327868 3.26823235 0.34535225 0.24270674 -0.90654579 1
21.54024315 -3.80532789 3.27044296 0.32442684 0.61354578 -0.71993666 1
21.52573776 -3.80737710 3.26084328 0.22289897 0.86628605 -0.44706211 1
21.53705597 -3.80737710 3.26708603 0.26136304 0.75806146 -0.59752170 1
21.54943657 -3.80737710 3.27238345 0.27255039 0.80961469 -0.51984645 1
21.52244186 -3.80942631 3.25331593 0.18980374 0.94009050 -0.28320381 1
21.53347969 -3.80942631 3.25983119 0.22734807 0.90998447 -0.34675801 1
21.54481697 -3.80942631 3.26611018 0.21938374 0.85519437 -0.46958851 1
21.55880737 -3.81147552 3.26782370 0.14331424 0.76560405 -0.62714550 1
21.54346657 -3.81352448 3.25885248 0.44224385 0.60902955 -0.65840975 1
21.55481529 -3.81352448 3.26518726 0.34760504 0.50967083 -0.78702375 1
21.57031250 -3.81352448 3.26770210 0.11794913 0.41455182 -0.90234959 1
21.53033829 -3.81557369 3.24568653 0.59229834 0.58296689 -0.55617648 1
21.56280136 -3.81557369 3.26620507 0.21120309 0.33991069 -0.91643548 1
21.54100418 -3.81762290 3.25477791 0.54893629 0.46309425 -0.69585391 1
21.56445694 -3.81762290 3.26678538 0.27600060 0.34861994 -0.89570520 1
21.53227997 -3.81967211 3.24381018 0.65822803 0.60280847 -0.45095212 1
21.54082870 -3.81967211 3.25280046 0.55975377 0.53915808 -0.62927282 1
21.56365585 -3.81967211 3.26540470 0.26064550 0.44383522 -0.85736470 1
21.53104019 -3.82172132 3.23853254 0.61539707 0.66672330 -0.42043607 1
21.55981827 -3.82172132 3.26260781 0.24265861 0.76509546 -0.59644424 1
21.52551842 -3.82377052 3.22437882 0.89434238 -0.06271946 -0.44296499 1
21.54956627 -3.82377052 3.25304651 0.34421391 0.75139333 -0.56296078 1
21.52751732 -3.82581973 3.23112559 0.76844995 -0.10616213 -0.63104222 1
21.54574203 -3.82581973 3.24809957 0.47485530 0.31235442 -0.82276798 1
21.55719376 -3.82581973 3.25438380 0.30535270 0.56471540 -0.76671784 1
21.52643204 -3.82786894 3.23001385 0.78703851 -0.30632009 -0.53547958 1
21.53519821 -3.82786894 3.23882961 0.71847485 -0.06940975 -0.69208105 1
21.54477501 -3.82786894 3.24687290 0.46970040 0.08155130 -0.87905115 1
21.52559471 -3.82991815 3.23083138 0.79735417 -0.07632188 -0.59866627 1
21.53373146 -3.82991815 3.24024820 0.66900485 -0.02566353 -0.74281484 1
21.54435539 -3.82991815 3.24727392 0.52262221 0.13078304 -0.84247363 1
21.54703331 -3.83196712 3.24901581 0.48354365 0.34864469 -0.80289004 1
21.55985641 -3.83196712 3.25400925 0.16384144 0.41469843 -0.89508726 1
21.54399300 -3.83401632 3.24331260 0.29719264 0.80903398 -0.50709028 1
21.55460739 -3.83401632 3.25039625 0.25213231 0.74943579 -0.61218894 1
21.54038429 -3.83606553 3.23597932 0.35613447 0.85663179 -0.37329643 1
21.55007744 -3.83606553 3.24395180 0.28425854 0.85802250 -0.42777853 1
21.53933907 -3.83811474 3.23048496 0.44706460 0.74212387 -0.49938502 1
21.56071091 -3.83811474 3.24459410 0.22434212 0.77797663 -0.58687560 1
21.53702354 -3.84016395 3.22620869 0.51963068 0.61924641 -0.58865766 1
21.57150841 -3.84016395 3.24514079 0.11917984 0.68053064 -0.72296211 1
21.69291687 -3.84016395 3.27012730 0.25226838 0.95609851 -0.14911841 1
21.57508659 -3.84221315 3.24391890 0.08456041 0.66105394 -0.74555833 1
21.55391693 -3.84426236 3.23378181 0.43608154 0.65882218 -0.61301404 1
21.56531906 -3.84426236 3.24021149 0.21347665 0.68254437 -0.69897132 1
21.58080673 -3.84426236 3.24284410 0.04233739 0.65128027 -0.75765530 1
21.70402908 -3.84426236 3.26471376 0.28033935 0.95102341 -0.13024713 1
21.54376984 -3.84631157 3.22400856 0.56175600 0.44804668 -0.69547420 1
21.55372620 -3.84631157 3.23179436 0.50211137 0.46285227 -0.73051485 1
21.57836914 -3.84836054 3.23865676 -0.00001054 0.64760088 -0.76197973 1
21.53852081 -3.85040975 3.21820378 0.62570733 0.10085009 -0.77351122 1
21.55920219 -3.85040975 3.23305130 0.31675676 0.52523936 -0.78980300 1
21.57342529 -3.85040975 3.23684001 0.15393629 0.59803565 -0.78654751 1
21.55266380 -3.85245895 3.22847033 0.40330384 0.31435894 -0.85937447 1
21.58172035 -3.85245895 3.23549032 -0.12419745 0.67611717 -0.72625104 1
21.54117775 -3.85450816 3.21998215 0.64368757 0.07244177 -0.76185202 1
21.58340454 -3.85450816 3.23172665 -0.11776475 0.70942681 -0.69487054 1
21.53612518 -3.85655737 3.21617031 0.62366504 0.10916833 -0.77403113 1
21.55892944 -3.85655737 3.22896791 0.28507505 0.40380825 -0.86929346 1
21.54039955 -3.85860658 3.21855474 0.59837840 0.18816336 -0.77880539 1
21.56499100 -3.85860658 3.22968292 0.17581373 0.52019941 -0.83575242 1
21.54310799 -3.86065578 3.22028708 0.47554771 0.23459898 -0.84783117 1
21.55743980 -3.86270499 3.22604752 0.25273203 0.40070723 -0.88065898 1
21.53837013 -3.86475420 3.21616220 0.45447505 0.15427659 -0.87729765 1
21.56635284 -3.86475420 3.22402191 0.01567103 0.68496963 -0.72840306 1
21.54003716 -3.86680317 3.21672225 0.42677193 0.33805140 -0.83880091 1
21.56997681 -3.86680317 3.22273016 0.01974996 0.65558778 -0.75486065 1
21.54692459 -3.86885238 3.21876049 0.31082220 0.60447345 -0.73348579 1
21.58445358 -3.86885238 3.21764255 -0.17366573 0.51633108 -0.83859551 1
21.56388855 -3.87090158 3.21765137 0.17235976 0.72135637 -0.67077351 1
21.57568932 -3.87295079 3.21725845 -0.00668707 0.65514765 -0.75547127 1
21.56390762 -3.87500000 3.21325064 0.15969802 0.71185724 -0.68392676 1
21.57989693 -3.87500000 3.21542096 -0.00499143 0.55833071 -0.82960346 1
21.57319069 -3.87704921 3.21308088 0.14287879 0.65587377 -0.74122550 1
21.56124878 -3.87909842 3.20923758 0.11128820 0.60258873 -0.79025424 1
21.59437752 -3.87909842 3.21257854 -0.21819565 0.54068869 -0.81243239 1
21.56114578 -3.88114762 3.20713663 0.04328878 0.83062471 -0.55514743 1
21.58303833 -3.88319683 3.20801830 0.16782627 0.57219124 -0.80276493 1
21.57495689 -3.88524580 3.20478153 0.37038951 0.40679201 -0.83506400 1
21.59104729 -3.88524580 3.20695543 0.08813976 0.49006904 -0.86721608 1
21.57274818 -3.89139342 3.19808483 0.42018552 0.72434230 -0.54660074 1
21.58521271 -3.89139342 3.20372772 0.27211873 0.57686432 -0.77018112 1
21.58685684 -3.89549184 3.19993997 0.30487563 0.75009780 -0.58685956 1
21.59784698 -3.77459025 3.23115468 0.90395335 -0.42668276 0.02846336 1
21.59464645 -3.78073764 3.23416042 -0.96719661 0.23494597 -0.09659764 1
21.59448242 -3.78278685 3.22342873 0.91331388 -0.40723362 -0.00430566 1
21.59513855 -3.79098368 3.23586798 -0.98130139 -0.18434017 -0.05537395 1
21.52904510 -3.79713106 3.26620483 0.49087025 -0.18695013 -0.85093834 1
21.54103470 -3.80122948 3.27394128 0.56076567 0.24055943 -0.79225818 1
21.53321075 -3.81352448 3.25151968 0.44744860 0.69865769 -0.55827160 1
21.52306557 -3.81557369 3.23546934 0.63272136 0.66262588 -0.40073760 1
21.54840469 -3.82172132 3.25629473 0.40128590 0.72431260 -0.56066111 1
21.52792168 -3.83196712 3.23290110 0.63359491 0.45914004 -0.62269407 1
21.56377602 -3.84836054 3.23518562 0.29107708 0.57309829 -0.76604992 1
21.54813576 -3.85040975 3.22631431 0.60295463 0.15875509 -0.78182002 1
21.54206085 -3.85245895 3.22130537 0.63787293 -0.02037015 -0.76987219 1
21.54658890 -3.85655737 3.22345352 0.45441999 0.33932501 -0.82362674 1
21.54772949 -3.87500000 3.21140337 0.10525443 0.69499768 -0.71126628 1
21.54665947 -3.84016395 3.23425817 0.42754210 0.73715886 -0.52326339 1
21.53958130 -3.84221315 3.22589827 0.42005783 0.72851030 -0.54113230 1
21.54519653 -3.86270499 3.22044039 0.42458969 0.21662588 -0.87908863 1
21.67600822 -3.82786894 3.27426624 0.46142630 -0.51811373 -0.72016937 1
21.53531265 -3.79508185 3.27086949 0.63411253 0.16081137 -0.75633392 1
21.53142357 -3.80737710 3.26393175 0.26791283 0.83454560 -0.48141079 1
21.52941132 -3.81967211 3.24011278 0.60681606 0.66588359 -0.43401995 1
21.54595947 -3.83196712 3.24789214 0.45612995 0.41865978 -0.78528304 1
21.54007149 -3.83401632 3.24060798 0.39786145 0.80666194 -0.43703864 1
21.53237534 -3.83606553 3.22855997 0.38055690 0.84311247 -0.37991816 1
21.52673340 -3.83811474 3.21882153 0.46265038 0.71702191 -0.52137723 1
21.56440544 -3.85040975 3.23458505 0.28670056 0.57631942 -0.76528342 1
21.57151604 -3.86885238 3.22125673 0.00844853 0.67531457 -0.73748143 1
21.56097412 -3.87500000 3.21169949 0.14141302 0.67420676 -0.72487764 1
21.59233665 -3.78483605 3.24282312 -0.98153772 0.13756484 -0.13288947 1
21.53714943 -3.83196712 3.24126625 0.59252176 0.50443757 -0.62806106 1
21.58531189 -3.88729501 3.20583797 0.14082474 0.47947505 -0.86618247 1
21.58946800 -3.78688526 3.25841069 -0.95845524 -0.06326795 -0.27813795 1
21.53308487 -3.79098368 3.27086234 0.59879116 0.29839644 -0.74324203 1
21.59549904 -3.79098368 3.23335934 0.98579091 0.16594747 0.02603309 1
21.58865929 -3.79098368 3.26130247 -0.95157651 0.10753624 -0.28798978 1
21.59236336 -3.79303288 3.25142288 -0.94756101 0.18890383 -0.25776633 1
21.59492683 -3.79508185 3.23606658 -0.98449075 -0.14911812 -0.09242163 1
21.58887672 -3.79713106 3.25252175 -0.85801329 0.47755418 -0.18909047 1
21.52845955 -3.79918027 3.26676464 0.40544405 -0.20956926 -0.88977292 1
21.54088211 -3.79918027 3.27408552 0.60306081 0.28058125 -0.74672071 1
21.52321053 -3.80122948 3.26540184 0.18804529 0.07296470 -0.97944633 1
21.53700638 -3.80122948 3.27138805 0.49940738 0.21734948 -0.83866052 1
21.53063774 -3.80532789 3.26681423 0.30900644 0.57859855 -0.75481040 1
21.51754570 -3.80737710 3.25804782 0.26120489 0.87028019 -0.41759358 1
21.54513359 -3.80737710 3.27006721 0.26319382 0.80698368 -0.52868360 1
21.51869965 -3.80942631 3.25049996 0.20128912 0.94748197 -0.24851680 1
21.53044128 -3.80942631 3.25846624 0.22309347 0.91357680 -0.34000990 1
21.55799103 -3.80942631 3.27284336 0.15121553 0.87253014 -0.46456971 1
21.52654839 -3.81147552 3.24934816 0.27352270 0.90496824 -0.32591075 1
21.56716537 -3.81147552 3.26851010 0.15532590 0.44886888 -0.87999466 1
21.52526093 -3.81352448 3.24413681 0.46116706 0.79617178 -0.39170837 1
21.53599167 -3.81352448 3.25314307 0.48715338 0.63456063 -0.60001200 1
21.56157684 -3.81352448 3.26735449 0.18023675 0.37436173 -0.90959772 1
21.52439117 -3.81557369 3.23850584 0.63306456 0.66670168 -0.39336768 1
21.53329849 -3.81557369 3.24928761 0.60735521 0.52796253 -0.59361200 1
21.54447365 -3.81557369 3.25789404 0.51745535 0.41003575 -0.75107300 1
21.56813049 -3.81762290 3.26760864 0.05008706 0.28041294 -0.95857179 1
21.54969406 -3.81967211 3.25935125 0.44871976 0.52638711 -0.72219609 1
21.56477737 -3.81967211 3.26648474 0.27016074 0.39366890 -0.87865691 1
21.52858353 -3.82172132 3.23442554 0.66928857 0.63411237 -0.38723934 1
21.53603554 -3.82172132 3.24665213 0.52417835 0.69740594 -0.48873511 1
21.54696465 -3.82172132 3.25552177 0.39708278 0.72373353 -0.56438908 1
21.52830505 -3.82377052 3.23035741 0.82789699 0.12105693 -0.54766028 1
21.56013489 -3.82377052 3.25803185 0.16582379 0.82247553 -0.54409234 1
21.52400780 -3.82581973 3.22368145 0.88693667 -0.22840633 -0.40146467 1
21.53195381 -3.82581973 3.23548198 0.78624655 -0.08051615 -0.61264469 1
21.54156876 -3.82581973 3.24563980 0.58821830 0.19298643 -0.78533780 1
21.55430412 -3.82581973 3.25283384 0.34421301 0.53121617 -0.77416199 1
21.53163719 -3.82786894 3.23578858 0.77540437 -0.18335756 -0.60425827 1
21.54188728 -3.82786894 3.24533510 0.56966645 0.04645679 -0.82056195 1
21.52367973 -3.82991815 3.22835875 0.87493457 -0.05217280 -0.48142236 1
21.53265190 -3.82991815 3.23913240 0.69038788 -0.09166058 -0.71760916 1
21.54527283 -3.82991815 3.24854898 0.48982232 -0.02397727 -0.87149250 1
21.67895126 -3.82991815 3.27594852 0.52633591 -0.45591135 -0.71771537 1
21.56220627 -3.83196712 3.25393271 0.12405972 0.41481129 -0.90141044 1
21.53032875 -3.83401632 3.23055601 0.43278140 0.79379990 -0.42729612 1
21.55187988 -3.83401632 3.24869204 0.29350488 0.75431887 -0.58724605 1
21.54297256 -3.83606553 3.23781133 0.33745057 0.85512987 -0.39354799 1
21.55500793 -3.83606553 3.24571133 0.19719364 0.87699121 -0.43817928 1
21.53685760 -3.83811474 3.22854710 0.43703136 0.73613645 -0.51682369 1
21.56284523 -3.83811474 3.24472141 0.21519209 0.75524695 -0.61910776 1
21.68411446 -3.83811474 3.27141666 -0.41626237 -0.90878110 0.02902689 1
21.53022385 -3.84016395 3.21976495 0.48797676 0.66281885 -0.56793472 1
21.54055214 -3.84016395 3.22930813 0.50072050 0.64337020 -0.57909738 1
21.69369888 -3.84016395 3.27158451 0.26934292 0.95151088 -0.14859825 1
21.53672409 -3.84221315 3.22432327 0.48441611 0.67288959 -0.55907122 1
21.56201553 -3.84221315 3.24119329 0.28703076 0.66368681 -0.69074826 1
21.57926369 -3.84221315 3.24429727 0.04935428 0.66762787 -0.74285744 1
21.70170403 -3.84221315 3.27531004 0.27334867 0.94518096 -0.17864335 1
21.54282188 -3.84426236 3.22492838 0.46040042 0.68857722 -0.56026143 1
21.56923294 -3.84426236 3.24081802 0.17604338 0.69399817 -0.69812268 1
21.53533936 -3.84631157 3.21693993 0.60943923 0.44305975 -0.65748147 1
21.55788231 -3.84631157 3.23431730 0.40451298 0.53158037 -0.74417173 1
21.57248878 -3.84631157 3.23989272 0.16249960 0.62957649 -0.75975478 1
21.54367638 -3.84836054 3.22191811 0.63101164 0.16409120 -0.75822054 1
21.56903648 -3.84836054 3.23667622 0.21232419 0.59256293 -0.77703771 1
21.53961182 -3.85040975 3.21932316 0.59965849 0.09015159 -0.79516187 1
21.55084229 -3.85040975 3.22805142 0.50750068 0.26155757 -0.82099372 1
21.55760956 -3.85245895 3.23023534 0.32511103 0.46355597 -0.82426857 1
21.57303238 -3.85245895 3.23504591 0.13345070 0.58703991 -0.79848297 1
21.55663300 -3.85450816 3.22900105 0.30322310 0.43590487 -0.84737400 1
21.57210922 -3.85450816 3.23375463 0.08320294 0.60405476 -0.79258761 1
21.54096985 -3.85655737 3.22018480 0.61332171 0.16979600 -0.77136619 1
21.55403328 -3.85655737 3.22715187 0.31003025 0.43302080 -0.84638894 1
21.56925201 -3.85655737 3.23213220 0.13352516 0.55678606 -0.81985384 1
21.54461479 -3.86065578 3.22100496 0.42760923 0.22326186 -0.87595918 1
21.55863571 -3.86065578 3.22707438 0.29054590 0.36150978 -0.88594230 1
21.57942772 -3.86065578 3.22679472 -0.13591767 0.66150108 -0.73752472 1
21.54087257 -3.86270499 3.21809387 0.55435383 0.17367107 -0.81395958 1
21.55426025 -3.86270499 3.22475290 0.35505111 0.31070549 -0.88170335 1
21.57330322 -3.86270499 3.22609282 -0.08403333 0.63935679 -0.76430446 1
21.57253265 -3.86475420 3.22464895 -0.01978459 0.64401823 -0.76475427 1
21.57411575 -3.86680317 3.22313595 -0.07180031 0.65630006 -0.75107586 1
21.53748131 -3.86885238 3.21484089 0.38878546 0.38174361 -0.83852113 1
21.55220413 -3.86885238 3.22019434 0.13431033 0.74171054 -0.65713485 1
21.55363083 -3.87090158 3.21662378 0.00451287 0.79336438 -0.60873031 1
21.56180191 -3.87295079 3.21528649 0.16444625 0.74778976 -0.64324794 1
21.57806396 -3.87500000 3.21498251 0.03443067 0.61156199 -0.79044700 1
21.55328369 -3.87704921 3.21038246 0.00717389 0.66240852 -0.74910846 1
21.59427643 -3.87704921 3.21267509 -0.17988191 0.51266596 -0.83953327 1
21.56927109 -3.87909842 3.21026754 0.12295941 0.67549670 -0.72703864 1
21.56497574 -3.88114762 3.20782423 0.05511542 0.83171577 -0.55245921 1
21.58387756 -3.88114762 3.20941401 0.12448568 0.69297437 -0.71013367 1
21.58141327 -3.88319683 3.20737791 0.18438468 0.57297864 -0.79855980 1
21.56959724 -3.88524580 3.20114088 0.39998114 0.57249207 -0.71572894 1
21.58404160 -3.88524580 3.20705605 0.16313287 0.50582048 -0.84707338 1
21.57122612 -3.88934422 3.19956064 0.46053345 0.57665191 -0.67481962 1
21.58589745 -3.88934422 3.20527720 0.18255078 0.49007101 -0.85235299 1
21.57806396 -3.89139342 3.20178175 0.23016911 0.71961898 -0.65511122 1
21.59727097 -3.77459025 3.24253511 -0.90459440 0.41260995 -0.10706068 1
21.59451294 -3.77868843 3.23862219 -0.92037848 0.38795454 -0.04893589 1
21.59514999 -3.78073764 3.22498059 0.97359056 -0.22826391 0.00412422 1
21.59326363 -3.78073764 3.24627495 -0.94978201 0.26889130 -0.16003626 1
21.59382057 -3.78483605 3.22187042 0.89119573 -0.45340113 -0.01405659 1
21.53138161 -3.79508185 3.26823235 0.56993275 0.04950929 -0.82019845 1
21.55671883 -3.80942631 3.27191114 0.14306398 0.88446993 -0.44412346 1
21.52547455 -3.81147552 3.24823713 0.27789692 0.91023582 -0.30699196 1
21.52460670 -3.81352448 3.24261522 0.46186502 0.81169562 -0.35753451 1
21.52482986 -3.82172132 3.22723246 0.86531498 0.32552598 -0.38113360 1
21.53954124 -3.82377052 3.24543428 0.54914437 0.63411396 -0.54437115 1
21.53133965 -3.83606553 3.22739625 0.39288483 0.82600408 -0.40417666 1
21.53016663 -3.83811474 3.22200561 0.49014827 0.68110737 -0.54391859 1
21.55800438 -3.84016395 3.24069548 0.29980446 0.69595800 -0.65250269 1
21.54375458 -3.84426236 3.22620344 0.44041974 0.70962966 -0.54996018 1
21.53445053 -3.84631157 3.21562004 0.58008085 0.46835680 -0.66644439 1
21.55201340 -3.85860658 3.22474337 0.38345511 0.38616179 -0.83895247 1
21.55529976 -3.86065578 3.22593045 0.35341271 0.30530295 -0.88424520 1
21.58248711 -3.89344263 3.19972610 0.30980318 0.78741649 -0.53291393 1
21.59601021 -3.77663946 3.23070526 0.93481467 -0.35469008 0.01778999 1
21.59295082 -3.78483605 3.23792076 -0.98532471 0.12104501 -0.12034669 1
21.59579849 -3.79303288 3.23741865 -0.98569784 -0.14263500 -0.08974979 1
21.70521355 -3.84426236 3.26797628 0.27917031 0.95114368 -0.13186979 1
21.70611000 -3.84426236 3.26934218 0.26839283 0.95240996 -0.14450103 1
21.70700455 -3.84426236 3.27070856 0.26206782 0.95376209 -0.14716772 1
21.70862770 -3.84426236 3.27358627 0.25497779 0.95306802 -0.16324114 1
21.70797157 -3.84631157 3.25911903 -0.22435906 -0.96932643 0.10034584 1
21.70895386 -3.84631157 3.26257110 -0.25507247 -0.95917584 0.12214642 1
21.71108437 -3.84631157 3.26501942 0.28258730 0.94831776 -0.14435320 1
21.71153641 -3.84631157 3.26677561 0.27278297 0.94975941 -0.15344873 1
21.71249390 -3.84631157 3.26809263 0.26458356 0.95106368 -0.15960396 1
21.71455765 -3.84631157 3.27059746 0.26057463 0.95205956 -0.16026057 1
21.71701813 -3.84631157 3.27490139 -0.19834749 -0.97101990 0.13333653 1
21.71914482 -3.84836054 3.25801373 -0.16834749 -0.97747662 0.12727366 1
21.71988106 -3.84836054 3.25953245 -0.17716329 -0.97620191 0.12507201 1
21.72163010 -3.84836054 3.26232767 -0.19291172 -0.97407549 0.11816093 1
21.72414780 -3.84836054 3.26445818 -0.18887302 -0.97528908 0.11462194 1
21.72526550 -3.84836054 3.26564550 -0.18851491 -0.97612845 0.10786736 1
21.72650528 -3.84836054 3.26887703 -0.18549200 -0.97731072 0.10225694 1
21.72706413 -3.85040975 3.25329852 -0.20355109 -0.97107859 0.12479313 1
21.72854805 -3.85040975 3.25633860 -0.20355109 -0.97107859 0.12479313 1
21.72922325 -3.85040975 3.25791454 -0.20739896 -0.97017785 0.12546159 1
21.72968674 -3.85040975 3.25967360 -0.20739896 -0.97017785 0.12546159 1
21.73200035 -3.85040975 3.26414824 -0.20739896 -0.97017785 0.12546159 1
21.72089577 -3.84836054 3.26080871 -0.19970053 -0.97142128 0.12829808 1
21.73036766 -3.85040975 3.26124334 -0.20739896 -0.97017785 0.12546159 1
21.71018600 -3.84631157 3.26365042 0.28258730 0.94831776 -0.14435320 1
21.72577477 -3.84836054 3.26735592 -0.18818298 -0.97694555 0.10081939 1
21.64151573 -3.63934422 3.19236040 -0.54904218 0.83537314 0.02654078 1
21.63416290 -3.64139342 3.18369675 0.92112950 -0.35139589 -0.16745557 1
21.63388824 -3.64139342 3.18841481 0.80890700 -0.57966596 -0.09826918 1
21.63456917 -3.64139342 3.18999720 0.79412362 -0.60124117 -0.08875094 1
21.63491058 -3.64139342 3.19634104 -0.77670431 0.62959067 0.01860137 1
21.63123894 -3.64344263 3.18423223 0.93492004 -0.33281763 -0.12311355 1
21.63218689 -3.64344263 3.18779421 0.89172776 -0.45082574 -0.03972104 1
21.63212776 -3.64344263 3.19007587 0.83567209 -0.52683952 -0.15521689 1
21.63290024 -3.64344263 3.19601250 -0.81831000 0.57442304 0.02017224 1
21.63262177 -3.64344263 3.19849062 -0.81515880 0.57898368 0.01714731 1
21.63290405 -3.64344263 3.20265055 -0.91904935 0.39202732 -0.04077841 1
21.63265419 -3.64344263 3.20729971 0.96625885 -0.25642550 0.02428590 1
21.63095665 -3.64549184 3.19118118 0.99136777 -0.05148821 -0.12057739 1
21.63067055 -3.64549184 3.19589186 0.98594495 -0.16664637 0.01189707 1
21.63071442 -3.64549184 3.19806790 0.98439825 -0.17576394 -0.00819296 1
21.63085747 -3.64549184 3.20014763 0.95559316 -0.29249461 -0.03589737 1
21.63185120 -3.64549184 3.20805073 0.98738707 0.15825465 -0.00471555 1
21.63188171 -3.64549184 3.21022367 0.94331308 0.32255276 0.07823139 1
21.63112640 -3.64754105 3.18879700 0.90442762 0.42574151 0.02747452 1
21.63180542 -3.64754105 3.19260406 0.91717790 0.39515793 -0.05133133 1
21.63117790 -3.64754105 3.19984627 0.96257615 0.26661735 -0.04860402 1
21.63142967 -3.64754105 3.20182276 0.97799990 0.20853488 0.00542158 1
21.63064003 -3.64754105 3.20697761 0.95909055 0.28287605 -0.01124517 1
21.63172150 -3.64754105 3.21037388 0.92092899 0.38755418 0.04112843 1
21.63180161 -3.64754105 3.21249819 0.90587703 0.40430512 0.12619100 1
21.63303757 -3.64959025 3.18699026 0.81104901 0.56942724 0.13398554 1
21.63268852 -3.64959025 3.19621134 0.80125502 0.59672847 0.04365232 1
21.63294220 -3.64959025 3.19818926 0.86591098 0.49948788 0.02664645 1
21.63294029 -3.64959025 3.20482516 0.83890086 0.54387161 -0.02119019 1
21.63323784 -3.64959025 3.20675349 0.82686801 0.56175547 -0.02683453 1
21.63322067 -3.64959025 3.20897484 0.83533636 0.54973623 0.00180276 1
21.63173866 -3.64959025 3.21694946 0.82921467 0.53271092 0.16918071 1
21.63160133 -3.64959025 3.21926928 0.83950561 0.50148686 0.20914411 1
21.63002968 -3.64959025 3.22510290 -0.95829993 -0.12643294 -0.25627321 1
21.63562965 -3.65163946 3.19122338 0.63931414 0.76867511 0.02039608 1
21.63566780 -3.65163946 3.19340944 0.65344356 0.75532185 0.05000421 1
21.63533974 -3.65163946 3.19593692 0.65332346 0.75358235 0.07267803 1
21.63445854 -3.65163946 3.20119405 0.68332595 0.72990164 0.01758524 1
21.63459778 -3.65163946 3.20327425 0.70184711 0.71199716 0.02169500 1
21.63433838 -3.65163946 3.20793080 0.75325232 0.65553562 0.05370285 1
21.63294220 -3.65163946 3.21802378 0.91694407 0.34053591 0.20796364 1
21.63121223 -3.65163946 3.22400856 -0.93020470 -0.18212390 -0.31866928 1
21.62984276 -3.65163946 3.22964001 -0.96257891 -0.01953127 -0.27029683 1
21.62840080 -3.65163946 3.23314881 -0.96736380 0.09349164 -0.23551346 1
21.62625694 -3.65163946 3.23729920 -0.91890713 0.35781253 -0.16607192 1
21.63871384 -3.65368843 3.19054556 0.74014463 0.65785679 0.13932109 1
21.63859177 -3.65368843 3.19288349 0.77015634 0.62785556 0.11250161 1
21.63828468 -3.65368843 3.19982338 0.85039899 0.51274800 0.11794507 1
21.63751984 -3.65368843 3.20275211 0.84471119 0.52858368 0.08403751 1
21.63698769 -3.65368843 3.20766306 0.84503648 0.52830101 0.08253116 1
21.63487053 -3.65368843 3.21623373 -0.93014049 -0.27177286 -0.24693761 1
21.63489342 -3.65368843 3.21840525 -0.95035006 -0.18398529 -0.25096647 1
21.63373566 -3.65368843 3.22167015 -0.95078284 -0.12847465 -0.28196855 1
21.62931252 -3.65368843 3.23230767 -0.93177463 0.22468830 -0.28515121 1
21.62809563 -3.65368843 3.23994398 -0.92183814 0.35261412 -0.16086553 1
21.64130974 -3.65573764 3.19032979 0.78424605 0.61467924 0.08442489 1
21.64087296 -3.65573764 3.19296265 0.85528847 0.48065435 0.19352783 1
21.64038467 -3.65573764 3.19564199 0.86976384 0.47039073 0.14914228 1
21.63967323 -3.65573764 3.19852519 -0.89044197 -0.36534123 -0.27136488 1
21.63753128 -3.65573764 3.21156240 -0.95069015 0.15739828 -0.26723401 1
21.63621140 -3.65573764 3.21498823 -0.94722132 0.11422757 -0.29953936 1
21.63335419 -3.65573764 3.22202373 -0.93683893 0.15214234 -0.31493734 1
21.63197708 -3.65573764 3.22548342 -0.94606033 0.18187220 -0.26812751 1
21.63048935 -3.65573764 3.22904253 -0.91472306 0.33552103 -0.22518295 1
21.62836075 -3.65573764 3.23753071 -0.89403393 0.42546135 -0.14030668 1
21.62674713 -3.65573764 3.24551105 -0.78163749 0.60098610 -0.16690878 1
21.62572098 -3.65573764 3.24861002 -0.72687864 0.65977998 -0.19062481 1
21.64157867 -3.65778685 3.19007635 0.80316676 0.57413012 0.15905270 1
21.63681793 -3.65778685 3.20340753 -0.93639272 0.22888644 -0.26604448 1
21.63575935 -3.65778685 3.20880890 -0.84115481 0.45919252 -0.28565855 1
21.63439941 -3.65778685 3.21227765 -0.84956160 0.45950179 -0.25904283 1
21.63167572 -3.65778685 3.22139120 -0.83890915 0.47151217 -0.27185974 1
21.63083649 -3.65778685 3.22435522 -0.82187871 0.49159861 -0.28783015 1
21.62812424 -3.65778685 3.23122835 -0.81336964 0.56101457 -0.15392365 1
21.62726974 -3.65778685 3.23419333 -0.82144837 0.56856419 -0.04424177 1
21.62556648 -3.65778685 3.24443316 -0.74809786 0.63514350 -0.19220386 1
21.62508202 -3.65778685 3.24703908 -0.73268610 0.65416030 -0.18773751 1
21.62171364 -3.65778685 3.25658369 -0.66928947 0.73268275 -0.12340014 1
21.62132072 -3.65778685 3.25908899 -0.69905432 0.70811668 -0.09946770 1
21.62082291 -3.65778685 3.26168752 -0.69627167 0.71035393 -0.10297114 1
21.63890457 -3.65983605 3.19480991 -0.96561918 -0.10146130 -0.23934329 1
21.63766289 -3.65983605 3.19819236 -0.94784922 0.15019757 -0.28110949 1
21.63233566 -3.65983605 3.21200037 -0.70768574 0.66919014 -0.22663947 1
21.63055992 -3.65983605 3.21804595 -0.73057149 0.63528097 -0.25036651 1
21.62924385 -3.65983605 3.22146082 -0.69992234 0.65966657 -0.27376767 1
21.62584305 -3.65983605 3.22898388 -0.66211765 0.73022272 -0.16844879 1
21.62452888 -3.65983605 3.23672366 -0.71946079 0.68726037 -0.10024649 1
21.62469864 -3.65983605 3.23873639 -0.73799015 0.66387025 -0.12102409 1
21.62378693 -3.65983605 3.24174452 -0.68681463 0.70181811 -0.18904233 1
21.62092590 -3.65983605 3.25085235 -0.59316023 0.78956359 -0.15732223 1
21.61889267 -3.65983605 3.26130724 -0.68727468 0.72170340 -0.08244826 1
21.61828041 -3.65983605 3.26400542 -0.66793886 0.73977498 -0.08118287 1
21.63195992 -3.66188526 3.20794845 -0.69678607 0.67506168 -0.24244774 1
21.63075638 -3.66188526 3.21127462 -0.70768574 0.66919014 -0.22663947 1
21.62909317 -3.66188526 3.21721840 -0.63551100 0.74287948 -0.21037075 1
21.62745667 -3.66188526 3.22093368 -0.62501697 0.73672267 -0.25805716 1
21.62312317 -3.66188526 3.23585105 -0.62413066 0.77454268 -0.10268672 1
21.62286186 -3.66188526 3.23826361 -0.60816114 0.78381058 -0.12562251 1
21.62189865 -3.66188526 3.24131918 -0.58018385 0.79994861 -0.15319571 1
21.61840057 -3.66188526 3.25101590 -0.59608280 0.79030361 -0.14179386 1
21.61758041 -3.66188526 3.25392175 -0.63963764 0.76602749 -0.06376184 1
21.61762619 -3.66188526 3.25602865 -0.67199869 0.74008323 -0.02635493 1
21.61775398 -3.66188526 3.26234579 -0.66793886 0.73977498 -0.08118287 1
21.62647820 -3.66393447 3.21087217 -0.46309549 0.86983472 -0.17008861 1
21.62059402 -3.66393447 3.22731495 -0.46595898 0.88277981 -0.05985008 1
21.62056160 -3.66393447 3.22952604 -0.46660369 0.88071760 -0.08134809 1
21.62026024 -3.66393447 3.23415661 -0.46699236 0.88002348 -0.08646853 1
21.61796951 -3.66393447 3.24061632 -0.45432004 0.88267258 -0.12034295 1
21.61490822 -3.66393447 3.24992132 -0.57908059 0.81450179 -0.03539090 1
21.61463356 -3.66393447 3.25232601 -0.63649367 0.77116686 -0.01332219 1
21.61552620 -3.66393447 3.25795412 -0.65033198 0.75909001 -0.02916626 1
21.61535454 -3.66393447 3.26025510 -0.65753660 0.75007055 -0.07099145 1
21.61733818 -3.66598368 3.21504140 -0.38628470 0.91533404 -0.11378805 1
21.61648369 -3.66598368 3.22022676 -0.41476625 0.90770880 -0.06351134 1
21.61524582 -3.66598368 3.22575521 -0.41026283 0.91054486 -0.05091630 1
21.61499405 -3.66598368 3.22816944 -0.41618261 0.90766400 -0.05420431 1
21.61439133 -3.66598368 3.23525667 -0.40870767 0.90937380 -0.07744251 1
21.61124420 -3.66598368 3.24467230 -0.51943352 0.85396009 -0.03067562 1
21.61194801 -3.66598368 3.24618244 -0.56205925 0.82709208 0.00284354 1
21.61206055 -3.66598368 3.24823523 -0.58326024 0.81186076 0.02626022 1
21.61312675 -3.66598368 3.25156069 -0.62581397 0.77997201 0.00073214 1
21.61126518 -3.66598368 3.26185942 -0.64335178 0.76128320 -0.08090972 1
21.61227036 -3.66803288 3.21979666 -0.40334725 0.91345360 -0.05397699 1
21.61202621 -3.66803288 3.22221231 -0.41543904 0.90791379 -0.05570420 1
21.61238861 -3.66803288 3.22624207 -0.39965949 0.91531205 -0.04976087 1
21.61101913 -3.66803288 3.22969937 -0.39937507 0.91499023 -0.05737965 1
21.60931015 -3.66803288 3.24214268 -0.34078720 0.93911042 -0.04399662 1
21.60952950 -3.66803288 3.24410057 -0.39340900 0.91899010 -0.02620216 1
21.61006355 -3.66803288 3.24576592 -0.55059468 0.83475184 0.00590429 1
21.61044121 -3.66803288 3.24757385 -0.51772250 0.85536508 0.01771967 1
21.61044502 -3.66803288 3.24972773 -0.52420155 0.85159274 0.00159643 1
21.61089706 -3.66803288 3.26005387 -0.56826589 0.82160529 -0.04515106 1
21.59945679 -3.67008185 3.23832846 -0.24003318 0.97055285 0.02027886 1
21.59984398 -3.67008185 3.24013329 -0.24320579 0.96921873 0.03828846 1
21.60039139 -3.67008185 3.24394703 -0.23495887 0.97045298 0.05491210 1
21.60147476 -3.67008185 3.24725580 -0.24679952 0.96698232 0.06352311 1
21.60179520 -3.67008185 3.24911404 -0.25060638 0.96678365 0.05025753 1
21.60314369 -3.67008185 3.25217128 -0.27012197 0.96136855 0.05295877 1
21.59305763 -3.67213106 3.25722146 -0.25021750 0.96803392 0.01736493 1
21.59449959 -3.67213106 3.25802755 -0.27441926 0.96154951 -0.01079902 1
21.63388824 -3.64139342 3.18618679 0.88297833 -0.45762088 -0.10455809 1
21.63275337 -3.64344263 3.19393134 -0.82919750 0.55834756 0.02606717 1
21.62996292 -3.64549184 3.18766975 0.98319282 -0.15816167 -0.09119629 1
21.63086510 -3.64754105 3.21556926 0.84300866 0.51475287 0.15609573 1
21.63285446 -3.64959025 3.19383526 0.83153716 0.55386628 0.04216760 1
21.63037872 -3.65368843 3.22914457 -0.92324389 0.27122883 -0.27213167 1
21.64142990 -3.65573764 3.18799019 0.74228232 0.66595996 0.07425824 1
21.63851929 -3.65573764 3.20844078 -0.96963342 0.04564949 -0.24026475 1
21.62888908 -3.65573764 3.23487234 -0.89499545 0.40835058 -0.17953535 1
21.64119530 -3.65778685 3.19266152 0.86545315 0.46397095 0.18900213 1
21.62653542 -3.65778685 3.24137926 -0.78734622 0.58610254 -0.19123214 1
21.62544060 -3.66188526 3.22499323 -0.62017921 0.74570961 -0.24350551 1
21.61726952 -3.66393447 3.24342585 -0.47734325 0.87141439 -0.11305039 1
21.61182594 -3.66598368 3.25705767 -0.64232400 0.76574633 -0.03244121 1
21.61004257 -3.66803288 3.23712897 -0.36691197 0.92906201 -0.04711045 1
21.61043549 -3.66803288 3.25404000 -0.52236911 0.85271867 -0.00117346 1
21.60021973 -3.67008185 3.24194479 -0.25410557 0.96524508 0.06109248 1
21.63300133 -3.65983605 3.20917964 -0.73071551 0.64391733 -0.22677149 1
21.63502121 -3.64139342 3.20287776 -0.87650660 0.48138820 -0.00125751 1
21.63182259 -3.64344263 3.18591022 0.93492004 -0.33281763 -0.12311355 1
21.62945366 -3.65778685 3.22782016 -0.76919166 0.55461804 -0.31740042 1
21.61672592 -3.66598368 3.21780896 -0.37294264 0.92225715 -0.10176211 1
21.63294029 -3.64344263 3.20482516 0.96160911 -0.27329123 0.02489616 1
21.63144302 -3.64549184 3.20622587 0.98797147 -0.15351702 -0.01857118 1
21.63147163 -3.64754105 3.19513798 0.96698434 0.25250549 0.03438408 1
21.63323784 -3.64959025 3.19125271 0.80764677 0.58895479 -0.02896465 1
21.63226128 -3.65163946 3.22084713 -0.92385155 -0.30032616 -0.23728150 1
21.63861465 -3.65368843 3.18841267 0.70957920 0.70213660 0.05917391 1
21.63616180 -3.65368843 3.21063519 0.88160110 0.45087082 0.13962449 1
21.63925743 -3.65573764 3.20333815 -0.97391548 -0.11038303 -0.19825294 1
21.62953186 -3.65573764 3.23210430 -0.87973410 0.43890242 -0.18284579 1
21.63806534 -3.65778685 3.20002842 -0.95610649 -0.13795309 -0.25851369 1
21.63603592 -3.65983605 3.20192814 -0.84486508 0.44499834 -0.29695030 1
21.61901283 -3.65983605 3.25905323 -0.68727468 0.72170340 -0.08244826 1
21.63267136 -3.66188526 3.20507812 -0.71424431 0.64685309 -0.26727543 1
21.61783409 -3.66188526 3.25798655 -0.69461710 0.71747315 -0.05233895 1
21.61521530 -3.66393447 3.25609207 -0.65320300 0.75693487 -0.01937609 1
21.61416626 -3.66598368 3.23329473 -0.40610004 0.91023314 -0.08098389 1
21.61291122 -3.66598368 3.25391030 -0.65411701 0.75622244 0.01607983 1
21.61040306 -3.66803288 3.23462391 -0.43408037 0.89834334 -0.06747947 1
21.59734535 -3.67008185 3.23596907 -0.23556901 0.97184962 -0.00394455 1
21.63286972 -3.64959025 3.21150255 0.84954909 0.52117413 0.08150996 1
21.60415459 -3.67008185 3.25553441 -0.30392503 0.95230988 -0.02711931 1
21.63203430 -3.65778685 3.21886778 -0.80941224 0.52365134 -0.26578394 1
21.63919449 -3.78688526 3.30875301 0.69118547 0.29957939 -0.65765860 1
21.64143372 -3.78688526 3.31097054 0.77349198 0.31005980 -0.55278664 1
21.64328575 -3.78688526 3.31352687 0.78809955 0.28534586 -0.54541438 1
21.64703369 -3.78688526 3.31859946 0.79472547 0.34372469 -0.50026470 1
21.64854431 -3.78688526 3.32145023 0.79863408 0.35597929 -0.48524463 1
21.64929581 -3.78688526 3.32287931 0.78552165 0.36312701 -0.50109332 1
21.65021133 -3.78688526 3.32416463 0.76595372 0.37970972 -0.51878263 1
21.65232658 -3.78688526 3.32648849 0.76295108 0.41520785 -0.49548774 1
21.65323830 -3.78688526 3.32777548 0.75311814 0.43381901 -0.49458481 1
21.65542603 -3.78688526 3.33210897 0.71043996 0.48411360 -0.51079261 1
